"x coordinate" "y coordinate" "water level (m)" 
 150977.697286  425251.700546      10.770347
 150875.841991  425322.014772      10.750953
 150914.706222  425302.579555      10.759236
 150811.821149  425371.842722      10.737947
 150850.854369  425353.068640      10.746605
 150746.783193  425419.354639      10.723483
 150785.978515  425401.931694      10.731838
 150680.927162  425463.982257      10.708900
 150720.217305  425448.113101      10.715967
 150614.130669  425506.175703      10.707374
 150653.686144  425491.516431      10.711926
 150545.948259  425546.736396      10.698606
 150586.061767  425532.967445      10.706066
 150476.233814  425585.322172      10.690254
 150516.982281  425572.911834      10.694331
 150405.343707  425620.516485      10.691675
 150446.584852  425610.395570      10.691411
 150375.256123  425644.057997      10.691578
 151653.694749  424879.240352      10.831502
 151665.038350  424974.026684      10.794836
 151680.330402  425072.018391      10.798818
 151699.077823  425173.831526      10.793733
 151721.285949  425279.869469      10.792803
 151747.460640  425390.723740      10.792316
 151777.789462  425507.434676      10.792612
 151812.466187  425631.650992      10.785201
 151850.582971  425765.632921      10.786694
 151890.202916  425912.101903      10.786142
 151930.059777  426073.195229      10.786432
 149437.293008  424307.456366      10.617969
 149440.743041  424358.396297      10.617955
 149457.066866  424367.612179      10.617892
 149484.467601  424428.198703      10.617538
 149532.162855  424529.542873      10.618954
 149605.833915  424633.444242      10.618882
 149687.503455  424722.928790      10.618762
 149771.044194  424797.321269      10.621061
 149857.720343  424857.844608      10.624927
 149949.924668  424908.454982      10.627059
 150044.918204  424950.838170      10.627251
 150497.311330  425383.817857      10.672242
 150501.866141  425335.728017      10.663097
 150503.023316  425285.288545      10.661701
 150477.451455  425254.296496      10.660957
 150462.683200  425454.793856      10.667786
 150470.638311  425408.753129      10.658207
 150423.693975  425523.367124      10.683875
 150435.147586  425479.583672      10.674770
 150380.523367  425588.950650      10.681855
 150395.188422  425547.491998      10.689191
 150333.466515  425651.305281      10.684623
 150351.043943  425612.038298      10.683253
 150302.877761  425673.317724      10.684308
 151604.971872  424840.757560      10.832917
 151532.730019  424873.917243      10.824437
 151494.002315  424901.685387      10.820741
 151417.364037  424940.596746      10.808340
 151473.095310  424936.410765      10.800629
 151345.041736  424981.794805      10.811640
 151398.055869  424971.171535      10.807788
 151275.701840  425029.764666      10.808022
 151324.281905  425015.246364      10.810839
 151209.083455  425080.890318      10.799387
 151254.646021  425063.710408      10.803150
 151144.220721  425132.268350      10.789443
 151187.500120  425114.504396      10.785579
 151080.411619  425182.649538      10.786336
 151122.065186  425164.894891      10.786360
 151017.142936  425232.741002      10.774673
 151057.664235  425214.567498      10.781662
 150953.880480  425283.257608      10.765328
 150993.740718  425264.456140      10.768118
 150890.074673  425333.956772      10.753747
 150929.696594  425314.891039      10.760821
 150825.341918  425383.801453      10.741378
 150864.984523  425365.214282      10.749354
 150759.657973  425431.479647      10.726918
 150799.352234  425414.129248      10.735498
 150693.215810  425476.301730      10.713339
 150732.898895  425460.455255      10.720846
 150625.936585  425518.686228      10.712406
 150665.749802  425503.994112      10.717642
 150557.413493  425559.530387      10.702011
 150597.632876  425545.582802      10.708498
 150487.497509  425598.679727      10.694079
 150528.197251  425585.822459      10.698406
 150416.557116  425634.808947      10.692578
 150457.581214  425623.918833      10.694523
 150344.794003  425666.910486      10.688761
 150386.190172  425658.546816      10.693026
 150313.896154  425689.131914      10.685762
 151613.191841  424934.696203      10.807135
 151624.769269  425031.278407      10.803469
 151639.659931  425131.629574      10.787600
 151657.750850  425236.286796      10.792509
 151679.186690  425345.738900      10.791551
 151704.229410  425460.722164      10.791145
 151732.734913  425582.400222      10.780471
 151764.314908  425712.505984      10.786778
 151797.381251  425853.088567      10.784119
 151829.746487  426006.167907      10.784678
 151860.665914  426172.604724      10.782653
 149399.660829  424310.340720      10.618105
 149436.604809  424358.673063      10.617993
 149447.870882  424427.173795      10.617380
 149489.746358  424534.958762      10.619071
 149558.272704  424646.064486      10.618811
 149639.315066  424739.232030      10.618753
 149722.633280  424817.505288      10.620555
 149810.165721  424881.295788      10.623151
 149901.147168  424936.577542      10.627040
 149994.426703  424983.173607      10.627267
 150475.462478  425360.187251      10.660135
 150477.112019  425308.081618      10.661358
 150452.527986  425255.858048      10.661337
 150443.530554  425433.470742      10.664707
 150448.674229  425384.662905      10.659790
 150407.176730  425503.864499      10.681476
 150416.211409  425457.825370      10.672969
 150366.325640  425570.911198      10.664020
 150378.979247  425527.648224      10.685076
 150321.202921  425634.428455      10.682928
 150337.182114  425593.731921      10.681983
 150271.785911  425694.724754      10.682126
 150290.947357  425656.216110      10.682782
 150240.140283  425715.567473      10.676261
 151563.861354  424897.129059      10.830582
 151492.088980  424933.592988      10.822368
 151452.644647  424962.202696      10.791169
 151375.629734  425004.184021      10.809469
 151431.661444  424998.381631      10.826132
 151302.771047  425048.109981      10.804437
 151356.036633  425035.928233      10.807802
 151232.691046  425097.313552      10.802122
 151281.570504  425082.367755      10.796854
 151165.194932  425147.510735      10.789881
 151211.111721  425131.204696      10.790574
 151099.321581  425197.018627      10.787217
 151143.033877  425180.450367      10.786184
 151034.400305  425246.277242      10.772736
 151076.544377  425229.145215      10.789342
 150969.818778  425296.117584      10.764543
 151010.945930  425278.133869      10.764380
 150904.950656  425346.427099      10.756548
 150945.560431  425327.911559      10.763803
 150839.327863  425396.161823      10.744531
 150879.756816  425377.897320      10.752288
 150772.850040  425443.913251      10.730293
 150813.190576  425426.744276      10.738842
 150705.675505  425488.837292      10.718926
 150745.890451  425473.123718      10.726045
 150637.762737  425531.289143      10.716346
 150677.975877  425516.700014      10.722014
 150568.739618  425572.241278      10.705318
 150609.213778  425558.286770      10.710814
 150498.456490  425611.725579      10.697319
 150539.270452  425598.634585      10.702781
 150427.288754  425648.514115      10.693802
 150468.278208  425637.112664      10.697456
 150355.445593  425681.600985      10.692017
 150396.653645  425672.433506      10.694028
 150282.485812  425710.744521      10.682835
 150324.257459  425704.018991      10.689123
 150250.512590  425731.780868      10.680122
 151572.376052  424992.460827      10.825688
 151583.556968  425090.992024      10.788006
 151597.653528  425193.768381      10.788129
 151614.746342  425301.290174      10.791594
 151634.923468  425414.095047      10.789957
 151658.123423  425533.018918      10.790155
 151683.827242  425659.343919      10.785302
 151711.094288  425794.747909      10.781970
 151737.973722  425940.558301      10.781477
 151762.751964  426098.504139      10.782571
 151784.582936  426270.340926      10.783055
 149370.774810  424279.422466      10.618177
 149401.862178  424340.648649      10.618299
 149414.818309  424422.947770      10.617733
 149449.870113  424539.411835      10.619145
 149515.815156  424657.258904      10.618875
 149593.567229  424755.341250      10.618251
 149676.296398  424836.680080      10.619493
 149762.701238  424904.821175      10.622526
 149852.981523  424963.384911      10.627266
 149945.665588  425013.643793      10.626970
 150040.862828  425053.405628      10.626271
 150449.901858  425332.201247      10.659768
 150449.090065  425276.142633      10.660522
 150421.697160  425408.766813      10.659903
 150423.418063  425355.722177      10.657994
 150388.470954  425481.679520      10.677926
 150394.463924  425432.704393      10.666495
 150350.442327  425550.719235      10.664587
 150360.593744  425505.064324      10.681825
 150307.690313  425615.850944      10.681831
 150321.658005  425573.236718      10.681419
 150260.201420  425677.404829      10.685341
 150277.797774  425637.394122      10.680397
 150207.912214  425735.845799      10.672824
 150228.911287  425698.043439      10.673661
 150175.126172  425755.575209      10.669686
 151522.799865  424955.723238      10.848485
 151451.495065  424995.505847      10.795611
 151410.746237  425025.110016      10.802201
 151333.151010  425070.097869      10.800336
 151389.511441  425062.716987      10.812017
 151259.582030  425115.797694      10.794795
 151313.076410  425102.906941      10.786206
 151188.644609  425164.440186      10.790441
 151237.834189  425150.161200      10.794441
 151120.158522  425212.788012      10.788204
 151166.478431  425197.733100      10.785185
 151053.156869  425260.975844      10.773293
 151097.362916  425245.172674      10.788733
 150986.902552  425309.901500      10.764144
 151029.655409  425293.000004      10.760542
 150920.683274  425359.601974      10.759813
 150962.567648  425341.862307      10.768562
 150853.946084  425409.065690      10.747385
 150895.381137  425391.294583      10.754337
 150786.494433  425456.777045      10.734090
 150827.655089  425439.917178      10.742220
 150718.433251  425501.714659      10.724835
 150759.328410  425486.245780      10.730807
 150649.736431  425544.123761      10.719334
 150690.487538  425529.761954      10.725810
 150580.067939  425585.032593      10.708727
 150620.933503  425571.225174      10.713673
 150509.274445  425624.656904      10.700409
 150550.343312  425611.515641      10.706635
 150437.728518  425661.875027      10.695934
 150478.840722  425650.181394      10.700084
 150365.639152  425695.676123      10.693973
 150406.833738  425685.966051      10.694983
 150292.549703  425725.828382      10.685629
 150334.173939  425718.280974      10.692847
 150217.956414  425752.243456      10.677207
 150260.270655  425747.050978      10.682946
 150184.849162  425772.140728      10.674276
 151530.872879  425052.567224      10.795485
 151541.179656  425153.166492      10.771076
 151554.152525  425258.384369      10.790125
 151569.883310  425368.661264      10.789212
 151588.253539  425484.588709      10.788230
 151608.831042  425607.137447      10.786916
 151630.742950  425737.630306      10.785554
 151652.762065  425877.362546      10.776108
 151672.809414  426027.217951      10.779447
 151688.968265  426190.412953      10.781871
 149304.980662  424190.765550      10.617816
 149356.268367  424278.101656      10.618119
 149368.574530  424411.287073      10.617671
 149415.346116  424542.747806      10.617852
 149476.362714  424667.219034      10.618794
 149551.434078  424769.926374      10.618299
 149631.736509  424855.156872      10.619590
 149716.788682  424926.844485      10.622605
 149805.606589  424989.086052      10.627416
 149897.616443  425042.495429      10.626944
 149992.040803  425086.648839      10.626232
 150088.919486  425120.378134      10.627039
 150422.434089  425299.686689      10.655990
 150395.944143  425379.684908      10.656351
 150394.721518  425323.501250      10.653995
 150367.036639  425455.947518      10.670364
 150369.407152  425402.656577      10.655276
 150332.392297  425527.735722      10.676946
 150339.372908  425478.984580      10.673075
 150292.547759  425595.049878      10.675876
 150303.996461  425549.904251      10.683510
 150247.430899  425658.345808      10.686828
 150263.053382  425616.322040      10.675940
 150197.044391  425718.134393      10.660243
 150216.533224  425678.769066      10.684687
 150141.835283  425774.757659      10.670874
 150164.613103  425737.694505      10.663418
 150108.118393  425793.407137      10.675305
 151481.364752  425016.547698      10.780598
 151410.569570  425059.778135      10.796233
 151367.920322  425090.586094      10.819388
 151289.708471  425137.722532      10.791066
 151346.323421  425129.288999      10.784915
 151215.316253  425183.417527      10.791246
 151269.036323  425171.026406      10.792703
 151143.443260  425230.312889      10.789137
 151192.980901  425217.274332      10.782714
 151073.832753  425277.149503      10.787582
 151120.632090  425263.012542      10.784501
 151005.467596  425324.874808      10.768332
 151050.285061  425309.375289      10.754471
 150937.536392  425373.702302      10.764318
 150981.049937  425357.017131      10.774113
 150869.396297  425422.685205      10.749825
 150912.116428  425405.627307      10.754401
 150800.750602  425470.214171      10.737490
 150842.945241  425453.823403      10.745215
 150731.622959  425515.065036      10.730411
 150773.371307  425499.968822      10.735072
 150661.985256  425557.328864      10.721870
 150703.422220  425543.320773      10.730125
 150591.527620  425598.054045      10.712124
 150632.918259  425584.540694      10.716886
 150520.094400  425637.646109      10.703928
 150561.548684  425624.622947      10.709548
 150448.037460  425675.097880      10.698505
 150489.409739  425663.299867      10.703038
 150375.556990  425709.387087      10.695786
 150416.889076  425699.354693      10.696487
 150302.182055  425740.277715      10.688623
 150343.822749  425732.171675      10.695201
 150227.411393  425767.693932      10.679950
 150269.614713  425761.683329      10.685410
 150151.252906  425791.477492      10.673550
 150194.010093  425787.761103      10.676612
 150117.250354  425810.266310      10.676780
 151488.380558  425115.046246      10.790351
 151497.471452  425217.752126      10.781484
 151509.037202  425325.258282      10.788582
 151522.997593  425438.002671      10.787489
 151538.917663  425556.730157      10.786235
 151556.053350  425682.509609      10.785147
 151573.357134  425816.467369      10.774318
 151589.508493  425959.599287      10.778017
 151601.800026  426112.610968      10.777103
 151606.120133  426280.826213      10.772120
 149260.822714  424094.698641      10.618004
 149279.040324  424192.869085      10.617882
 149311.688793  424273.959832      10.617974
 149328.569154  424405.698671      10.617878
 149379.142650  424545.871615      10.617174
 149439.845400  424675.958960      10.618854
 149510.976014  424783.326626      10.618719
 149589.348075  424872.165647      10.618829
 149672.112466  424947.674755      10.623518
 149759.324911  425013.249894      10.627267
 149849.951410  425070.281922      10.627002
 149943.566394  425118.031962      10.626351
 150039.414364  425156.178424      10.627207
 150137.902201  425185.228769      10.627727
 150236.661824  425207.246916      10.627447
 150399.523909  425300.495033      10.653706
 150367.831832  425345.751010      10.651970
 150341.608453  425425.778559      10.653758
 150340.638316  425369.449598      10.650714
 150311.627605  425501.075516      10.672206
 150314.823138  425447.817356      10.653578
 150275.297246  425571.369821      10.669698
 150283.529507  425522.951040      10.674419
 150233.104965  425637.012007      10.683950
 150246.245999  425592.331071      10.674920
 150185.064498  425698.661255      10.639033
 150202.642364  425657.198850      10.689666
 150131.661168  425756.723632      10.668158
 150153.029330  425718.046733      10.654096
 150074.061387  425811.535083      10.672203
 150098.262484  425775.237284      10.673990
 150039.741118  425829.159649      10.667841
 151439.163633  425079.663242      10.793444
 151368.875572  425126.282192      10.779948
 151324.056560  425158.215843      10.789255
 151245.216092  425205.720175      10.791302
 151302.004183  425197.265953      10.792461
 151169.885643  425249.939694      10.791174
 151223.876663  425238.820695      10.787675
 151096.929406  425295.167067      10.780857
 151146.902482  425283.184523      10.773184
 151025.921591  425341.367310      10.768358
 151073.333685  425327.646219      10.767577
 150955.837199  425389.005534      10.769884
 151001.414176  425373.713123      10.773980
 150885.929780  425437.239835      10.749694
 150930.283772  425421.173456      10.749965
 150815.810580  425484.397330      10.741002
 150859.306735  425468.681383      10.748529
 150745.400214  425529.039395      10.735858
 150788.209023  425514.468398      10.738981
 150674.642468  425571.047364      10.724785
 150716.936964  425557.535390      10.734966
 150603.247744  425611.455071      10.715189
 150645.306960  425598.388323      10.719624
 150531.046927  425650.851359      10.707370
 150573.014905  425638.109141      10.712280
 150458.356501  425688.363079      10.700686
 150500.116136  425676.630008      10.706242
 150385.353408  425722.947399      10.697182
 150426.957571  425712.782468      10.698846
 150311.555369  425754.348955      10.691766
 150353.353543  425745.906694      10.696853
 150236.471091  425782.504140      10.682640
 150278.710645  425775.933399      10.687785
 150160.134548  425807.255504      10.676090
 150202.795277  425802.741849      10.677898
 150082.927784  425828.520051      10.675450
 150125.870763  425826.188915      10.679268
 150048.358453  425846.257337      10.671503
 151444.706252  425179.862557      10.808059
 151452.366779  425284.478807      10.780370
 151462.214599  425393.916281      10.785287
 151473.867356  425508.771198      10.785833
 151486.622590  425629.966284      10.783563
 151499.597985  425758.480735      10.778606
 151511.701086  425895.232783      10.776475
 151521.258393  426041.131610      10.773559
 151523.403613  426197.767592      10.770941
 149236.523420  424170.075055      10.617928
 149255.125418  424187.999439      10.617964
 149270.762791  424271.892756      10.617928
 149287.897210  424402.140536      10.618053
 149334.882127  424550.804011      10.617761
 149400.798059  424683.929467      10.618934
 149472.686154  424795.339326      10.618795
 149547.971831  424887.941041      10.618159
 149628.745571  424966.921594      10.624621
 149713.810371  425036.059971      10.624711
 149802.904287  425096.469555      10.627165
 149895.227141  425148.000943      10.626293
 149990.060456  425189.941477      10.626579
 150086.968434  425222.815562      10.627565
 150184.188509  425247.515329      10.627448
 150280.721058  425263.449886      10.627841
 150374.804821  425271.119203      10.652752
 150346.723720  425346.183713      10.651720
 150313.897799  425390.394570      10.643769
 150286.880289  425469.811770      10.657662
 150286.465481  425413.425557      10.641408
 150255.383746  425543.899040      10.659337
 150259.732395  425490.774316      10.666708
 150216.755858  425612.728007      10.685085
 150226.701323  425564.592911      10.662073
 150171.616376  425676.875350      10.638336
 150186.783421  425632.642165      10.707520
 150120.458041  425736.919010      10.663648
 150140.025691  425696.071875      10.635938
 150064.499342  425793.240492      10.675424
 150087.418921  425755.295777      10.674459
 150005.211570  425846.297098      10.671632
 150030.453134  425810.752147      10.665262
 149970.492568  425862.952573      10.669959
 151395.925127  425145.034106      10.790482
 151325.890981  425194.257760      10.794311
 151279.190824  425226.761794      10.791380
 151199.567725  425272.911791      10.779203
 151256.555731  425265.376549      10.794656
 151123.120412  425315.379286      10.778844
 151177.497872  425305.490570      10.777323
 151048.757706  425359.770303      10.772193
 151099.320997  425348.347050      10.774233
 150975.977878  425405.850956      10.772997
 151024.146321  425392.354960      10.774070
 150903.859870  425453.006028      10.749648
 150950.277975  425438.276933      10.741726
 150831.916986  425499.547250      10.745917
 150877.051678  425484.771728      10.751581
 150759.954969  425543.819693      10.740604
 150804.083585  425529.968285      10.743432
 150687.867309  425585.447115      10.728096
 150731.222707  425572.595713      10.739460
 150615.366678  425625.395226      10.717644
 150658.260497  425612.944288      10.722146
 150542.261857  425664.430176      10.710001
 150584.882515  425652.140212      10.715062
 150468.814675  425701.835979      10.702774
 150511.090134  425690.333114      10.708780
 150395.162576  425736.543509      10.698517
 150437.165247  425726.417466      10.701034
 150320.814394  425768.259271      10.694525
 150362.896246  425759.674534      10.698289
 150245.295237  425796.929554      10.684919
 150287.697964  425790.018494      10.690436
 150168.660086  425822.398047      10.678840
 150211.358777  425817.338226      10.679617
 150091.303155  425844.573195      10.679174
 150134.152308  425841.481571      10.681763
 150013.588487  425863.498455      10.672455
 150056.500657  425862.424993      10.674490
 151399.817258  425246.695286      10.757459
 151405.820581  425352.772813      10.782692
 151413.494906  425463.725477      10.782577
 151422.186923  425580.405355      10.781698
 151431.114425  425703.738836      10.779942
 151439.375019  425834.528383      10.776006
 151445.698153  425973.517533      10.773468
 151447.288259  426121.847825      10.769090
 151438.986999  426276.832558      10.770377
 149183.975072  424084.899535      10.617820
 149219.430729  424176.677750      10.617817
 149240.356681  424267.129994      10.617959
 149257.586770  424400.796954      10.617620
 149298.553838  424554.523775      10.618147
 149361.819337  424692.194267      10.618858
 149433.498454  424806.430530      10.618752
 149507.813432  424902.370907      10.618485
 149585.908194  424984.802066      10.622228
 149668.996441  425057.271984      10.622442
 149756.188044  425121.189108      10.627522
 149847.065428  425176.284884      10.626089
 149940.632565  425222.048308      10.627212
 150036.220850  425258.389953      10.626980
 150132.113718  425286.106924      10.629048
 150227.464743  425304.780162      10.623421
 150321.088664  425314.978586      10.648102
 150293.536576  425390.483068      10.640717
 150259.781291  425433.199577      10.636122
 150231.579528  425511.631508      10.630627
 150232.147679  425455.167946      10.640613
 150197.836288  425584.546785      10.660710
 150203.912800  425531.541666      10.648021
 150156.245700  425652.079346      10.633465
 150168.288327  425604.235669      10.659730
 150107.885158  425714.776984      10.659558
 150125.161036  425671.056441      10.621521
 150053.988916  425773.172213      10.681181
 150075.256584  425733.006044      10.674346
 149996.184052  425827.778694      10.662222
 150020.251245  425790.563886      10.674904
 149961.724752  425844.321202      10.666348
 149935.575475  425879.115538      10.666751
 149978.627100  425880.253453      10.672789
 151351.566593  425212.222811      10.777017
 151281.235125  425262.518029      10.780766
 151233.247386  425294.843310      10.759182
 151152.521658  425339.045560      10.779794
 151209.835446  425332.719055      10.782813
 151074.626348  425380.456675      10.773501
 151129.576808  425371.300212      10.773912
 150998.444482  425424.646004      10.766259
 151049.754998  425413.503089      10.774622
 150923.577187  425470.331408      10.751439
 150972.574496  425457.359514      10.747165
 150849.371276  425515.939344      10.749517
 150896.560793  425502.438514      10.753186
 150775.525326  425559.632239      10.743326
 150821.295787  425546.746149      10.747871
 150701.849943  425600.725155      10.731269
 150746.519085  425588.735991      10.741882
 150628.044883  425640.057797      10.719298
 150671.972349  425628.417242      10.725269
 150553.881973  425678.555528      10.712434
 150597.314859  425666.908078      10.717140
 150479.540530  425715.681615      10.705851
 150522.470971  425704.582867      10.710654
 150405.107184  425750.346515      10.700096
 150447.637232  425740.427238      10.702768
 150330.084710  425782.198728      10.696819
 150372.570034  425773.649096      10.699905
 150254.018252  425811.187647      10.686490
 150296.697946  425804.129316      10.692818
 150176.977274  425837.159113      10.681218
 150219.829391  425831.765833      10.681983
 150099.352943  425860.001268      10.681093
 150142.236497  425856.397382      10.684050
 150021.502227  425879.766747      10.674049
 150064.327308  425877.973518      10.678471
 151353.723819  425314.815431      10.778860
 151357.669443  425421.886270      10.779968
 151362.540752  425534.105691      10.778687
 151367.635855  425652.426307      10.778849
 151372.212262  425777.632066      10.774798
 151375.291477  425910.267987      10.772751
 151374.950726  426051.146774      10.770114
 151368.280702  426198.717686      10.768721
 151353.748586  426347.697761      10.774093
 149150.155991  424070.497686      10.617867
 149167.810448  424156.507462      10.617833
 149186.569701  424170.383982      10.617819
 149204.490857  424261.331662      10.617988
 149226.902242  424399.151111      10.617907
 149265.146930  424557.917880      10.618162
 149324.956373  424699.545372      10.614893
 149393.643139  424817.395230      10.618762
 149467.086071  424915.660842      10.618587
 149543.686967  425001.265447      10.621647
 149624.363651  425077.021469      10.623650
 149709.678506  425144.288296      10.627605
 149798.834838  425202.979250      10.625808
 149891.037448  425252.383044      10.627859
 149985.312381  425292.262575      10.627988
 150080.111244  425322.933863      10.629136
 150174.429330  425344.484946      10.627846
 150267.498589  425357.531946      10.633993
 150239.803245  425433.050012      10.637561
 150205.259733  425474.017030      10.617305
 150175.127663  425551.422334      10.653773
 150177.306396  425494.690574      10.631486
 150138.422332  425623.293169      10.641240
 150146.706946  425570.422291      10.656155
 150093.504283  425689.574244      10.660166
 150107.780928  425642.100208      10.626302
 150042.209656  425750.745327      10.683197
 150061.353606  425707.627736      10.673160
 149986.273539  425807.467547      10.641882
 150008.829154  425768.002986      10.670040
 149927.079945  425860.361178      10.665871
 149952.101807  425823.878362      10.665617
 149892.229956  425875.858327      10.666802
 149900.428933  425894.749286      10.667532
 149943.454049  425896.518999      10.668295
 149986.307769  425896.612140      10.673907
 151306.087571  425280.317714      10.784645
 151234.884979  425330.202900      10.778962
 151185.886299  425361.879131      10.775136
 151103.619344  425404.706232      10.773543
 151161.462567  425399.295869      10.772274
 151023.880634  425445.796024      10.773978
 151079.569047  425437.007595      10.774224
 150945.550089  425489.640385      10.753645
 150997.671285  425478.991879      10.752575
 150868.554137  425533.924520      10.749326
 150918.304672  425522.113322      10.754489
 150792.408384  425576.757701      10.744162
 150840.221783  425565.150446      10.748079
 150716.831778  425617.126935      10.734575
 150763.125385  425606.244514      10.741838
 150641.479596  425655.664493      10.721156
 150686.685362  425645.063463      10.728551
 150566.067761  425693.421962      10.714935
 150610.508645  425682.642399      10.717442
 150490.670708  425730.076089      10.708760
 150534.420074  425719.581187      10.712617
 150415.308399  425764.525841      10.701449
 150458.507412  425754.991319      10.704878
 150339.481571  425796.342779      10.698544
 150382.493254  425788.003776      10.701832
 150262.756814  425825.468835      10.688030
 150305.822747  425818.443913      10.694686
 150185.210200  425851.753799      10.683055
 150228.320231  425846.215867      10.684496
 150107.213351  425875.058539      10.683021
 150150.242149  425871.150513      10.686049
 150029.104759  425895.413581      10.675805
 150071.967013  425893.153574      10.681478
 151306.257751  425383.379874      10.777592
 151307.523716  425491.222919      10.775353
 151308.959500  425604.665118      10.774284
 151309.947539  425724.535004      10.772903
 151309.796450  425851.324253      10.770460
 151307.123103  425985.485808      10.768498
 151299.980860  426126.351189      10.766674
 151287.993522  426271.272441      10.767115
 149096.385885  423995.098521      10.617935
 149121.225930  424075.990972      10.617847
 149152.136434  424162.307971      10.617773
 149169.238660  424255.971050      10.617969
 149191.415661  424397.388581      10.618008
 149233.384338  424560.296059      10.618053
 149290.013246  424706.013816      10.615980
 149355.288084  424826.941756      10.618992
 149425.996966  424928.329345      10.618864
 149501.026107  425016.416381      10.622487
 149579.912116  425095.281574      10.624226
 149663.034303  425165.831346      10.626914
 149750.402530  425227.982693      10.626325
 149841.038397  425281.020965      10.628651
 149934.002615  425324.386125      10.628593
 150027.779389  425358.179129      10.628650
 150121.292846  425382.537704      10.629324
 150213.830137  425398.497847      10.628722
 150185.155542  425473.628030      10.629860
 150149.811563  425512.988865      10.634319
 150116.931933  425589.460320      10.652223
 150121.195696  425532.474994      10.620905
 150076.805718  425660.291794      10.646740
 150087.493020  425607.628667      10.646859
 150028.747302  425725.209963      10.686821
 150045.077505  425678.216292      10.652954
 149975.186460  425784.764833      10.639275
 149995.792176  425742.303879      10.686323
 149917.755566  425839.769708      10.662666
 149941.345895  425801.020307      10.674205
 149857.149307  425890.761418      10.665828
 149883.228622  425855.101644      10.661995
 149821.813074  425905.006626      10.662869
 149865.020028  425909.801381      10.665307
 149908.027912  425912.264137      10.667921
 149950.887460  425912.964564      10.669671
 149993.681563  425912.346087      10.674938
 151259.313394  425348.362926      10.781293
 151186.939859  425397.301260      10.770578
 151136.557145  425428.300683      10.775234
 151052.328643  425470.555065      10.778889
 151110.900518  425465.670212      10.770756
 150970.415084  425511.375374      10.755722
 151026.886189  425503.111955      10.743851
 150889.926961  425553.924868      10.751333
 150942.781401  425544.364846      10.757961
 150810.978433  425595.548081      10.745526
 150861.321575  425585.610546      10.748659
 150733.110194  425634.948296      10.737659
 150781.414955  425625.476762      10.739700
 150655.912480  425672.482944      10.724048
 150702.699462  425663.192467      10.731386
 150579.013308  425709.264470      10.717211
 150624.705244  425699.622539      10.717914
 150502.362172  425745.222545      10.710264
 150547.129488  425735.568159      10.714107
 150425.896955  425779.264626      10.702998
 150469.930371  425770.317495      10.707375
 150349.119016  425810.865899      10.699699
 150392.793370  425802.924706      10.703428
 150271.618373  425839.949305      10.689749
 150315.184018  425833.138906      10.695978
 150193.466881  425866.371155      10.685493
 150236.936771  425860.867319      10.687093
 150114.997642  425889.957706      10.685341
 150158.272848  425885.929044      10.687384
 150036.522694  425910.698411      10.677782
 150079.530328  425908.181494      10.683385
 151256.979500  425451.797724      10.775747
 151254.920502  425560.510016      10.769782
 151252.407552  425675.250307      10.769094
 151248.991428  425796.508293      10.767149
 151243.749701  425924.580877      10.765392
 151235.223782  426058.937919      10.764809
 151223.084410  426198.280896      10.761298
 151206.405487  426342.055198      10.752825
 149063.637998  423975.585603      10.618096
 149086.835635  424059.938553      10.617850
 149102.373134  424142.873863      10.617814
 149120.416021  424155.793685      10.617783
 149135.347400  424250.525355      10.617965
 149157.719241  424395.932856      10.618041
 149198.624142  424562.574373      10.617842
 149255.099045  424711.388584      10.616954
 149317.583488  424835.479104      10.619297
 149385.483779  424939.591743      10.618812
 149457.999723  425030.595881      10.620377
 149535.018263  425112.091824      10.622354
 149616.229320  425185.788865      10.625355
 149701.553209  425251.308225      10.626744
 149790.498932  425307.882193      10.629243
 149882.025029  425354.785789      10.628967
 149974.787016  425391.795154      10.629279
 150067.605598  425419.081353      10.626718
 150159.746360  425437.799900      10.632311
 150129.175839  425512.291614      10.638875
 150093.163692  425550.411683      10.620050
 150056.587310  425625.827960      10.644893
 150063.306481  425568.755686      10.623239
 150013.115155  425695.504537      10.657409
 150026.072090  425643.148748      10.649899
 149962.542724  425758.900242      10.619984
 149980.542579  425712.482075      10.647700
 149907.337103  425816.731410      10.647465
 149929.097878  425774.961909      10.668979
 149848.503678  425869.826168      10.670328
 149873.172582  425831.866545      10.658846
 149813.557227  425883.888742      10.669694
 149786.215451  425918.543262      10.659697
 149829.324882  425924.203491      10.665876
 149872.310540  425927.439388      10.669227
 149915.192028  425928.800654      10.669402
 149958.016202  425928.772956      10.671859
 150000.867413  425927.712512      10.676192
 151210.837968  425415.876268      10.768293
 151137.185529  425464.318845      10.773841
 151084.690889  425494.874042      10.765160
 150998.152514  425536.607053      10.757089
 151057.610750  425532.451725      10.744947
 150914.114082  425576.426632      10.754510
 150971.160661  425569.221868      10.759475
 150831.691783  425616.428355      10.747570
 150885.106534  425608.689780      10.750516
 150751.057468  425654.554007      10.740801
 150801.842896  425646.861221      10.736587
 150671.641105  425690.836169      10.726271
 150720.385190  425683.177472      10.733770
 150592.957689  425726.371657      10.715851
 150640.199880  425718.186772      10.719430
 150514.803591  425761.365774      10.711378
 150560.833367  425752.836674      10.716201
 150437.022436  425794.772064      10.705261
 150482.090141  425786.653616      10.709688
 150359.123493  425825.960607      10.700616
 150403.617781  425818.626146      10.704257
 150280.714894  425854.812846      10.692053
 150324.904513  425848.407660      10.697190
 150201.847982  425881.189062      10.688177
 150245.784465  425875.900051      10.689624
 150122.805774  425904.887040      10.687155
 150166.426152  425900.910954      10.688721
 150043.859497  425925.833190      10.679688
 150087.112846  425923.244886      10.684947
 151205.360724  425519.957860      10.769459
 151199.443910  425629.768460      10.764766
 151192.748050  425745.745560      10.765875
 151184.711848  425868.092540      10.763763
 151174.319760  425996.481345      10.762462
 151161.007053  426129.963983      10.758701
 151143.974816  426268.757000      10.750806
 149050.725572  423976.504389      10.618069
 149072.704809  424062.008655      10.617829
 149089.043504  424146.602025      10.617736
 149100.468614  424245.151851      10.617972
 149123.438154  424394.252276      10.618009
 149164.478289  424564.499526      10.617540
 149218.319203  424716.294672      10.617825
 149279.656952  424842.807136      10.618863
 149345.021511  424949.735761      10.618671
 149415.044658  425043.319474      10.620708
 149489.695364  425127.664208      10.622458
 149568.906176  425204.161754      10.622898
 149652.270533  425272.918445      10.628102
 149739.293677  425332.932835      10.627896
 149829.232306  425383.354150      10.628540
 149920.843759  425423.732726      10.628460
 150012.978926  425454.080132      10.627564
 150104.783187  425475.535792      10.631453
 150071.588308  425549.075150      10.630833
 150034.427094  425586.182713      10.592036
 149994.138411  425660.450385      10.652008
 150003.387141  425603.574007      10.619453
 149947.893615  425728.784167      10.636451
 149962.735968  425676.853398      10.654453
 149895.480898  425790.464964      10.627068
 149914.804004  425744.696480      10.644953
 149838.841501  425846.381653      10.669873
 149861.740188  425805.367152      10.659617
 149778.374370  425897.247529      10.645004
 149804.324997  425860.232907      10.664604
 149742.949135  425909.879398      10.657213
 149750.366052  425931.339582      10.657527
 149793.346966  425937.897810      10.665820
 149836.280211  425941.975004      10.668055
 149879.179884  425944.076681      10.672656
 149922.056846  425944.684032      10.670515
 149964.956783  425944.208957      10.674522
 150007.967922  425942.932311      10.678057
 151160.153900  425483.006935      10.769179
 151085.141512  425531.830189      10.761904
 151029.839899  425562.014352      10.759054
 150941.102443  425602.280010      10.756388
 151001.378746  425599.152742      10.760985
 150855.155043  425639.884864      10.745210
 150912.581818  425634.491147      10.753540
 150771.125590  425676.377728      10.743218
 150824.922772  425670.951331      10.735343
 150689.030397  425711.110949      10.724940
 150740.189009  425705.460544      10.736657
 150608.189681  425745.090809      10.712122
 150657.352393  425738.738398      10.717950
 150528.223215  425778.802192      10.712968
 150575.817472  425771.744638      10.718114
 150448.865438  425811.300840      10.707203
 150495.211284  425804.302499      10.709716
 150369.638360  425841.843664      10.701748
 150415.143287  425835.363879      10.705085
 150290.165236  425870.254052      10.694301
 150335.129163  425864.477070      10.698847
 150210.456679  425896.389997      10.690263
 150254.980728  425891.514054      10.692016
 150130.731468  425920.023716      10.688209
 150174.801674  425916.278454      10.690399
 150051.208723  425941.009502      10.681523
 150094.805434  425938.522098      10.686082
 151150.911815  425588.071170      10.762352
 151140.968336  425698.993351      10.765507
 151129.984560  425815.883235      10.763060
 151117.311061  425938.551369      10.759526
 151102.422923  426066.433754      10.756551
 151084.311487  426199.583494      10.748878
 151063.212024  426337.227087      10.745385
 149027.498477  423962.526271      10.617957
 149034.835081  424043.777318      10.618028
 149041.955453  424126.117430      10.617742
 149058.666793  424138.996861      10.617726
 149067.369966  424239.438909      10.617936
 149089.816474  424392.733996      10.617965
 149129.932285  424565.909632      10.617471
 149181.752551  424720.414028      10.617572
 149240.413630  424849.407796      10.612338
 149304.144429  424958.600787      10.618264
 149371.824614  425054.793760      10.620484
 149444.131596  425141.708845      10.622552
 149521.060397  425221.075865      10.623659
 149602.370211  425292.795871      10.626292
 149687.442685  425356.118822      10.628198
 149775.566678  425409.995168      10.627729
 149865.808881  425453.825144      10.631612
 149957.109437  425487.440391      10.628975
 150048.534783  425511.689719      10.626457
 150012.258004  425583.961047      10.623055
 149973.475129  425620.183494      10.621981
 149930.104734  425693.159744      10.654851
 149941.554608  425636.756775      10.622718
 149881.788361  425759.876084      10.631899
 149898.185091  425708.545229      10.660498
 149827.851279  425819.643808      10.664301
 149848.424427  425774.590743      10.643878
 149769.598907  425873.392217      10.649108
 149793.823191  425833.252142      10.662270
 149707.291351  425921.791394      10.662257
 149734.643680  425885.844242      10.655178
 149671.410181  425933.002394      10.662830
 149714.289276  425943.397307      10.661729
 149757.110649  425950.845671      10.660946
 149799.949845  425955.809210      10.665797
 149842.832634  425958.725709      10.669661
 149885.759297  425960.043164      10.673962
 149928.735139  425960.183839      10.672061
 149971.807659  425959.495282      10.676417
 150015.072695  425958.197499      10.680143
 151106.776463  425550.203150      10.763008
 151029.820090  425599.095553      10.758284
 150972.173119  425629.059650      10.758664
 150881.452605  425666.679357      10.749243
 150942.271927  425665.041456      10.752705
 150793.899503  425700.897844      10.742174
 150851.579147  425697.927085      10.741542
 150708.517692  425733.758557      10.724955
 150762.599879  425730.591268      10.741816
 150625.060401  425765.841649      10.712086
 150676.589833  425761.744627      10.710582
 150542.896530  425797.890507      10.715383
 150592.420795  425792.718580      10.718277
 150461.644497  425829.156391      10.708830
 150509.564215  425823.628257      10.707423
 150380.839309  425858.777869      10.702852
 150427.587625  425853.450515      10.707578
 150300.109694  425886.501130      10.695801
 150346.029743  425881.612867      10.700702
 150219.406997  425912.175108      10.692367
 150264.663223  425907.941714      10.693903
 150138.871243  425935.550565      10.688985
 150183.510233  425932.234125      10.692118
 150058.657978  425956.406450      10.683210
 150102.701484  425954.196503      10.686500
 151093.542638  425656.218580      10.764274
 151079.543428  425767.870567      10.762090
 151064.303102  425885.006757      10.759143
 151047.412697  426007.310158      10.754222
 151027.976139  426134.877029      10.746863
 151005.377050  426266.793510      10.743780
 150979.347746  426406.864041      10.742949
 148986.286268  423974.148706      10.617983
 149026.039016  424046.045255      10.618080
 149032.064495  424126.535005      10.617702
 149033.048410  424233.318826      10.617907
 149055.868316  424390.891816      10.617976
 149094.881851  424566.978045      10.617653
 149144.572346  424723.683922      10.617054
 149201.046807  424855.015333      10.614089
 149262.283678  424966.496628      10.618080
 149328.087540  425064.906260      10.619995
 149398.119303  425154.360051      10.621954
 149472.769969  425236.359997      10.624148
 149551.856846  425311.012913      10.625109
 149634.884354  425377.414338      10.627786
 149721.104106  425434.623382      10.627613
 149809.701750  425481.893493      10.630535
 149899.878808  425518.938358      10.633538
 149990.733667  425546.196483      10.630798
 149951.308059  425616.967963      10.632887
 149910.709699  425652.204360      10.624093
 149865.189371  425723.712124      10.654018
 149878.361427  425667.928795      10.626396
 149815.184712  425788.522447      10.645483
 149833.022024  425737.886110      10.652217
 149759.600298  425846.190893      10.664132
 149781.584148  425801.933651      10.647493
 149699.452686  425897.600487      10.658953
 149725.176763  425858.440295      10.657992
 149664.024142  425908.673626      10.659984
 149635.324021  425943.551695      10.653550
 149678.006495  425954.738990      10.662112
 149720.654478  425963.043354      10.660538
 149763.357328  425968.897883      10.664226
 149806.172172  425972.684164      10.666553
 149849.108766  425974.788164      10.671582
 149892.157677  425975.611872      10.674213
 149935.322320  425975.527853      10.674387
 149978.656000  425974.828789      10.677970
 150022.267049  425973.690705      10.682167
 151050.625761  425617.600920      10.762491
 150971.529282  425665.504676      10.760726
 150911.875764  425694.945101      10.752923
 150819.563869  425728.894685      10.743918
 150880.618259  425729.312522      10.731429
 150730.658888  425759.263921      10.738073
 150788.542443  425758.836964      10.745231
 150643.983110  425789.110325      10.712627
 150698.359905  425787.769998      10.710353
 150559.157479  425819.067990      10.718034
 150611.047814  425816.266574      10.718149
 150475.627123  425848.710473      10.711063
 150525.477714  425845.070849      10.707081
 150392.941372  425877.081096      10.703647
 150441.217907  425873.264906      10.710977
 150310.718268  425903.827879      10.697210
 150357.819464  425900.141149      10.700133
 150228.832954  425928.779698      10.694689
 150274.998812  425925.462221      10.695644
 150147.332699  425951.671526      10.689547
 150192.682539  425949.016284      10.693401
 150066.298099  425972.209558      10.684758
 150110.905427  425970.472667      10.686853
 151033.343962  425723.991725      10.760726
 151015.357018  425835.751076      10.758780
 150996.156422  425952.520864      10.748887
 150974.992670  426074.441380      10.745262
 150951.107595  426200.982132      10.744795
 150923.462092  426333.819972      10.741465
 150889.453235  426469.962933      10.744174
 148974.138905  424017.576528      10.617783
 148992.249272  424106.436796      10.617893
 148999.577569  424114.841095      10.617998
 149000.948945  424226.821840      10.617906
 149021.681636  424388.974113      10.618014
 149059.488915  424567.419326      10.617798
 149106.869821  424726.253480      10.616800
 149161.017562  424859.591424      10.616190
 149220.082971  424973.242201      10.617788
 149283.536047  425073.840545      10.619399
 149351.525650  425165.539498      10.621444
 149423.916169  425250.095604      10.624006
 149500.766680  425327.474567      10.622417
 149581.645456  425396.867572      10.626739
 149665.881166  425457.208827      10.628658
 149752.685965  425507.808025      10.627502
 149841.394792  425548.316284      10.639339
 149931.339294  425578.860088      10.635946
 149889.146129  425648.134067      10.635432
 149847.106480  425681.964054      10.631032
 149799.829418  425751.751565      10.658468
 149814.607211  425696.516209      10.633877
 149748.069169  425814.555951      10.652613
 149767.467616  425764.627842      10.656362
 149690.505557  425870.027115      10.660047
 149714.108532  425826.641431      10.644557
 149628.371136  425919.100606      10.661012
 149655.599007  425880.945705      10.664158
 149592.499338  425928.892234      10.637496
 149599.036884  425953.462369      10.640132
 149641.537779  425965.406313      10.654088
 149684.010066  425974.513038      10.660302
 149726.553779  425981.231703      10.661827
 149769.248597  425985.904962      10.665897
 149812.136354  425988.858160      10.667894
 149855.214353  425990.439499      10.673047
 149898.467564  425991.014278      10.674782
 149941.902636  425990.916515      10.676196
 149985.584247  425990.394933      10.679833
 150029.638947  425989.599557      10.683910
